ply
format ascii 1.0
comment PCL generated
element vertex 560
property float x
property float y
property float z
property uchar red
property uchar green
property uchar blue
property float nx
property float ny
property float nz
property float curvature
element camera 0
property float view_px
property float view_py
property float view_pz
property float x_axisx
property float x_axisy
property float x_axisz
property float y_axisx
property float y_axisy
property float y_axisz
property float z_axisx
property float z_axisy
property float z_axisz
property float focal
property float scalex
property float scaley
property float centerx
property float centery
property int viewportx
property int viewporty
property float k1
property float k2
end_header
-0.18155529 -0.32098034 -0.19062252 79 76 67 0.41299939 0.67451859 0.61192822 0
-0.17384405 -0.3229132 -0.19337779 118 110 98 0.46471208 0.77290577 0.43204099 0
-0.16532376 -0.32490426 -0.19579086 159 151 136 0.13454428 0.89522672 0.42481402 0
-0.15460604 -0.3256565 -0.19512568 132 117 98 -0.057618618 0.96208441 0.26659647 0
-0.14506656 -0.32497084 -0.19494165 108 90 73 -0.067836583 0.98187953 0.17694837 0
-0.13487503 -0.32341525 -0.19548166 118 101 84 -0.16449772 0.96401012 0.20886588 0
-0.12487136 -0.32298458 -0.19539657 92 81 70 -0.027905414 0.95470375 0.29624659 0
-0.11572433 -0.3220188 -0.19280274 12 11 8 -0.43421245 0.79420191 0.42509153 0
-0.19313268 -0.31183258 -0.19267039 73 73 70 0.43201447 0.73760414 0.51894486 0
-0.18482025 -0.3147364 -0.19449508 75 74 70 0.41485652 0.68246615 0.60177571 0
-0.17645648 -0.31828105 -0.19756947 67 64 55 0.49898854 0.63288665 0.59200078 0
-0.11364494 -0.31649697 -0.19654228 7 7 6 -0.57441145 0.59887022 0.55803758 0
-0.10408124 -0.31297484 -0.1955162 27 27 24 -0.17517778 0.86782062 0.46497324 0
-0.097206891 -0.31128624 -0.19203226 47 48 43 -0.57844323 0.77803302 0.24508773 0
0.59520543 -0.31040639 -0.19861679 146 148 142 0.096397012 0.9783138 -0.18332975 0
0.60568118 -0.31060961 -0.19462477 144 145 141 0.040099688 0.99036998 -0.13251193 0
0.61583221 -0.3109169 -0.19313499 160 161 157 0.077555299 0.98976511 -0.11979218 0
0.62435693 -0.31156138 -0.1949982 147 148 146 0.017067611 0.99229455 -0.12271996 0
0.63415045 -0.31158698 -0.19426832 129 131 128 -0.0012863233 0.9983415 -0.057554908 0
0.64494401 -0.31163287 -0.19422974 165 166 163 0.009365283 0.99993658 -0.0062600612 0
0.65559828 -0.31155249 -0.19452386 170 172 166 0.017286226 0.99981225 -0.0087602744 0
0.6649493 -0.3115229 -0.19561139 205 205 200 -0.0077882279 0.99959677 -0.027306097 0
0.67547578 -0.31157425 -0.19384514 190 190 186 -0.0087102922 0.99942529 -0.032761291 0
0.68475294 -0.31178084 -0.19485292 194 194 190 0.034431975 0.9979465 -0.054011952 0
0.69384682 -0.31204873 -0.19546303 206 208 204 0.023168713 0.99963129 -0.014156653 0
0.70513165 -0.31204912 -0.1956515 179 181 178 -0.032361615 0.99947608 -0.00056867808 0
0.71465045 -0.31195253 -0.19522133 195 195 194 0.019478742 0.99974436 0.011477009 0
0.72454631 -0.3120119 -0.19547427 195 198 195 0.02323162 0.99972069 0.0043382253 0
0.73425663 -0.3120566 -0.19536135 144 148 145 -0.022898028 0.99973238 -0.0033032661 0
0.74465984 -0.31202137 -0.19569068 173 173 172 0.035358746 0.99875474 -0.035194058 0
0.75552213 -0.31216776 -0.1949183 156 158 155 -0.0058383681 0.99995017 -0.008094551 0
0.76520246 -0.31220558 -0.19457218 157 159 157 0.0024685229 0.99974728 -0.022346206 0
0.77474523 -0.31218436 -0.19496702 172 174 172 0.0019780076 0.99986333 -0.016416568 0
0.78562433 -0.31228825 -0.19582795 174 175 172 0.03036751 0.99953729 -0.001753303 0
0.79526681 -0.31228152 -0.19541763 187 188 185 -0.050588347 0.9986375 -0.012798834 0
0.80490494 -0.31215852 -0.19512796 167 167 164 -0.0023049787 0.99987739 -0.01548742 0
0.81524342 -0.31206226 -0.19590397 157 157 155 -0.024353789 0.99966848 0.0083504189 0
0.82436198 -0.31186262 -0.19517076 205 205 199 -0.022213986 0.999735 0.00603616 0
0.83464777 -0.31175664 -0.19518816 169 170 165 0.032577071 0.99945629 0.0050749052 0
0.84527808 -0.31179789 -0.19563212 149 152 152 -0.017320547 0.99871099 0.047710743 0
0.8550114 -0.31152177 -0.1948957 148 154 154 -0.062483467 0.99624145 -0.059989981 0
0.86558187 -0.31079108 -0.19495948 197 199 198 -0.17577364 0.98372883 -0.037163027 0
0.87103742 -0.31023407 -0.19873112 155 155 155 -0.33922851 0.90586329 -0.25364494 0
-0.54167074 -0.30014154 -0.19233029 99 98 90 0.0273495 0.99719119 0.069725566 0
-0.53452951 -0.30016273 -0.19487886 149 149 144 0.019189909 0.99910599 0.037669148 0
-0.52477032 -0.30053455 -0.19448924 151 150 144 0.040825319 0.99909157 -0.012218027 0
-0.51456618 -0.30079544 -0.19505501 163 159 154 0.020316068 0.9996779 0.015210667 0
-0.50433993 -0.30114901 -0.19439074 183 179 173 0.058547541 0.99800134 -0.023779238 0
-0.49538338 -0.30144832 -0.19544297 190 185 178 0.0074266843 0.99991202 0.010990047 0
-0.48502043 -0.30148786 -0.1960627 209 206 197 0.049277753 0.99804872 0.038346928 0
-0.47612667 -0.30175552 -0.19592948 209 207 201 0.01894898 0.99979234 0.0075022075 0
-0.46470851 -0.30204949 -0.1946298 169 165 160 0.020926481 0.99968237 0.014047851 0
-0.45568842 -0.30221683 -0.19464098 170 163 153 0.010367665 0.99990809 0.0087395189 0
-0.44564301 -0.30241752 -0.19592091 205 201 194 0.025591424 0.99964684 -0.0071560629 0
-0.43507591 -0.30259109 -0.19465248 200 196 189 0.025964368 0.99966288 -0.00010943185 0
-0.42511123 -0.30267021 -0.19578075 177 174 168 0.019870549 0.9997018 -0.0141964 0
-0.4150421 -0.30303377 -0.19564156 142 141 136 0.022322915 0.99959767 -0.017500054 0
-0.40471181 -0.3033635 -0.19581771 128 128 123 0.053149451 0.99853653 -0.0099965828 0
-0.39470625 -0.3039262 -0.19559573 151 149 144 0.043600045 0.99891126 0.016590254 0
-0.38461724 -0.3042621 -0.19516203 179 175 168 0.031453878 0.99941617 -0.013339167 0
-0.37526309 -0.30440226 -0.19488993 151 147 137 -0.019931771 0.99954933 -0.022447687 0
-0.36450312 -0.30433404 -0.19653425 129 128 121 -0.017229762 0.99848813 -0.052197933 0
-0.35633543 -0.30405685 -0.19532019 113 113 108 -0.043138258 0.99867868 0.027928796 0
-0.34512296 -0.30314821 -0.19390392 168 163 155 -0.11498084 0.99335432 -0.0051607369 0
-0.33356932 -0.30191919 -0.19548252 139 132 124 -0.14231592 0.98976564 0.010497505 0
-0.32764718 -0.30081221 -0.19474201 197 193 185 -0.47047266 0.86751819 0.16145447 0
-0.28280696 -0.30037192 -0.19349679 142 141 134 0.11771789 0.9896574 0.081980489 0
-0.27472973 -0.30086133 -0.194749 180 177 169 0.12261305 0.98086846 0.15120564 0
-0.26444003 -0.30182263 -0.19540139 160 160 154 0.12635192 0.97724861 0.17035358 0
-0.25572363 -0.30263665 -0.19537078 145 144 138 0.065528944 0.98613465 0.15246125 0
-0.24551529 -0.30345604 -0.19445619 152 149 143 0.064540125 0.9875834 0.14322592 0
-0.23528701 -0.30419293 -0.19432133 112 111 105 0.058938455 0.9893502 0.13308807 0
-0.22507495 -0.30448741 -0.19537453 133 132 126 -0.0037260661 0.99203515 0.12590629 0
-0.21534066 -0.30499271 -0.19496149 131 130 125 0.092056699 0.97818971 0.1861999 0
-0.20509313 -0.30641836 -0.19496217 138 135 130 0.22206385 0.92610103 0.30499935 0
-0.19518445 -0.30784705 -0.19730203 143 142 137 0.26641822 0.84576422 0.46228153 0
-0.18929899 -0.30932465 -0.19933616 143 142 138 0.52988082 0.75804162 0.38026226 0
-0.093479209 -0.30905977 -0.19512255 72 72 68 -0.26075038 0.93711597 0.23199753 0
-0.085880406 -0.30688155 -0.19467904 95 97 94 -0.29976901 0.95039976 0.082939327 0
-0.074841447 -0.30499965 -0.19562964 106 108 106 -0.10012421 0.97607142 0.1930277 0
-0.064627066 -0.30452058 -0.19468805 136 136 131 -0.042668413 0.99524486 0.08756236 0
-0.055061281 -0.30408219 -0.19452065 105 105 101 -0.064229459 0.99059647 0.12080201 0
-0.044744246 -0.30360481 -0.19550501 101 102 100 0.0023066283 0.99997211 0.0071053617 0
-0.034860276 -0.30368197 -0.19472755 64 66 64 -0.0039712344 0.9999823 -0.0044221994 0
-0.024683613 -0.30389935 -0.19452456 127 129 124 0.051042996 0.9964056 -0.067605466 0
-0.014823676 -0.30391142 -0.19443192 133 132 126 -0.0056921542 0.99947369 -0.031936493 0
-0.0047928849 -0.30411544 -0.19407666 190 191 185 0.0081739053 0.99969125 0.023465455 0
0.0044954773 -0.30411205 -0.19475988 151 151 146 -0.023109345 0.99971962 0.0051616011 0
0.014193687 -0.30397731 -0.19494359 155 154 149 0.014968644 0.99875724 0.04753748 0
0.025802694 -0.30438626 -0.19471176 140 140 132 0.011580453 0.99922526 0.037614137 0
0.035354771 -0.30440062 -0.19420926 160 159 152 0.031983431 0.99836743 0.047324218 0
0.045666788 -0.30444896 -0.19494134 127 128 123 0.017875796 0.99980909 0.0078967959 0
0.054159813 -0.30454507 -0.19471332 142 145 142 0.033757832 0.99910384 0.025531722 0
0.065116987 -0.30455476 -0.1961986 170 168 162 0.0013739384 0.99927372 0.038080364 0
0.075563118 -0.30450118 -0.19570662 176 173 167 0.0174729 0.9990477 0.039980467 0
0.084411614 -0.30457875 -0.19558042 180 177 169 0.0047062123 0.99834657 0.057288226 0
0.095971599 -0.30476353 -0.19586213 153 150 144 0.020771148 0.99966395 0.015508613 0
0.10470409 -0.30475074 -0.19582437 151 148 142 0.011046778 0.9996165 0.025394361 0
0.11480279 -0.30485517 -0.19463418 166 163 155 -0.021711672 0.99975789 0.0035676085 0
0.12551348 -0.30469313 -0.19538707 176 176 169 -0.037020456 0.99902159 0.024196435 0
0.13490941 -0.3047162 -0.19538531 167 166 160 0.047676675 0.99886096 0.001885462 0
0.14554274 -0.30488506 -0.19603369 201 201 193 0.002894182 0.9999429 0.010286716 0
0.15519364 -0.30487788 -0.19572133 192 189 182 -0.0057407608 0.99964601 0.025976501 0
0.16520657 -0.30525813 -0.19477116 200 198 189 0.024636168 0.99958974 0.014609403 0
0.17515476 -0.30536392 -0.1947955 166 162 156 0.026163477 0.99961287 0.0094640376 0
0.18549874 -0.30545446 -0.19510914 202 199 192 0.014851999 0.99974763 0.016851163 0
0.19484939 -0.30555189 -0.19432391 177 173 165 0.0061350507 0.99997759 -0.0026968822 0
0.20489329 -0.30567935 -0.19543293 188 185 178 0.013564321 0.99944061 0.030568779 0
0.21612221 -0.30594486 -0.19385949 178 173 165 0.026568281 0.99950874 0.016626727 0
0.22531573 -0.30614901 -0.19441487 121 121 117 0.0018838511 0.99997479 -0.0068524755 0
0.23504585 -0.30612189 -0.19476376 208 207 202 0.0010023286 0.99996871 0.0078519285 0
0.24444239 -0.30635047 -0.19401485 201 199 192 0.030157119 0.99935549 0.019473838 0
0.25429288 -0.30676249 -0.19380021 178 174 166 0.0112841 0.99953938 -0.028174888 0
0.26349637 -0.30672127 -0.19502735 182 180 173 0.024730962 0.99941957 0.023429772 0
0.27396634 -0.30690876 -0.19406264 152 151 145 0.022172382 0.99954224 0.020581977 0
0.28527585 -0.30733356 -0.19505067 173 172 168 0.055150732 0.99841833 0.010918009 0
0.29438651 -0.30771792 -0.19434658 121 122 118 -0.0020676579 0.99997622 0.0065902802 0
0.30549213 -0.30782494 -0.19612449 194 195 190 0.008445641 0.99995458 0.0044093938 0
0.31627297 -0.30818039 -0.19544163 156 156 152 0.035885815 0.99935418 0.0018380648 0
0.32518873 -0.30842501 -0.19530192 195 195 190 0.02150234 0.99690479 -0.075620703 0
0.33551529 -0.30853865 -0.19531956 173 172 167 -0.00045200108 0.99995226 0.0097599998 0
0.34521425 -0.30855203 -0.19454265 135 134 129 0.019753437 0.99978822 -0.0057630851 0
0.354615 -0.30859435 -0.19540255 145 143 139 0.0020579633 0.99998873 -0.0042890739 0
0.36282763 -0.30859193 -0.19486572 96 97 92 0.012542621 0.99978298 -0.016630046 0
0.37488416 -0.3086547 -0.19450217 156 157 151 0.0012111269 0.99998796 0.004766501 0
0.38457522 -0.30868143 -0.1956297 174 174 169 -0.011077584 0.99979639 0.01686451 0
0.39473566 -0.30859178 -0.19501546 166 166 161 -0.0089625195 0.99995422 0.0033429184 0
0.4052861 -0.30854768 -0.19440475 179 179 174 -0.0059665861 0.99996346 -0.006119648 0
0.41572031 -0.30868703 -0.19550566 163 165 161 0.028598428 0.99950129 0.01338946 0
0.42602634 -0.30881783 -0.19408327 167 169 166 0.0021344449 0.99917364 0.040588543 0
0.43523228 -0.30876842 -0.19503115 186 189 185 -0.016216755 0.99986386 0.0030413906 0
0.44511026 -0.30867109 -0.19700551 195 195 193 0.0033350338 0.99914616 0.041180335 0
0.45491692 -0.30874455 -0.19448654 168 170 165 0.0043517468 0.99968678 0.024646981 0
0.46604395 -0.30881709 -0.19453722 200 200 194 0.0039257561 0.99938339 -0.034893095 0
0.47509956 -0.30887392 -0.19382103 190 191 184 0.0068107266 0.99405229 0.10869013 0
0.48457247 -0.30885947 -0.19497795 166 167 161 0.0096810479 0.99990612 0.0096952319 0
0.49519825 -0.30887586 -0.19627084 177 178 174 0.010868837 0.99975467 0.019300137 0
0.50588101 -0.30898944 -0.19571568 170 171 168 -0.0052681086 0.99858493 0.052918036 0
0.51381183 -0.3092553 -0.19565703 184 185 181 0.00054192444 0.99985814 -0.016834535 0
0.5248875 -0.30907059 -0.19369926 203 204 199 0.027086761 0.99960548 0.0074297055 0
0.53461415 -0.30925566 -0.194352 152 151 146 -0.0010649747 0.9999851 -0.0053614783 0
0.54490399 -0.30934432 -0.19447507 173 174 168 -0.01046746 0.99921989 0.038078435 0
0.55469197 -0.30930302 -0.19489972 170 172 165 0.0033137065 0.99983311 -0.017964488 0
0.56538826 -0.30935529 -0.19422172 202 204 198 0.023508942 0.99717522 -0.071336135 0
0.57483929 -0.30947122 -0.19492693 162 163 157 0.0034712178 0.99998355 -0.0045562931 0
0.58548456 -0.30955353 -0.19463478 168 166 161 0.011461328 0.99946409 -0.030663867 0
0.59487176 -0.3097907 -0.19349575 186 187 180 0.061461955 0.99611944 -0.062996283 0
0.6016643 -0.30991641 -0.19143488 210 213 209 0.036274757 0.99612349 -0.080137894 0
0.87528026 -0.30842131 -0.19611956 170 171 170 -0.080126211 0.97584075 0.20326 0
0.88515639 -0.30790266 -0.19569308 134 135 133 -0.099309452 0.97818667 0.1824515 0
0.89204496 -0.3073965 -0.19225684 189 189 188 -0.17107162 0.9747076 0.14380413 0
-0.844715 -0.29058087 -0.1948497 175 177 173 0.12608293 0.99160707 0.028609442 0
-0.8346712 -0.29186356 -0.19452421 161 165 162 0.097341448 0.99487382 0.027398257 0
-0.82532239 -0.29253399 -0.19437996 144 145 143 0.050607096 0.99853945 -0.01891485 0
-0.81426322 -0.29281399 -0.1952991 168 169 164 0.03593906 0.99922907 -0.015802125 0
-0.80477536 -0.29317439 -0.19428214 164 166 162 0.036902599 0.99930543 -0.0051806862 0
-0.79503453 -0.29374966 -0.19476363 138 139 134 0.084083572 0.9964391 -0.0062469649 0
-0.78489852 -0.29451245 -0.19497229 139 141 137 0.065262459 0.99786073 -0.0038350462 0
-0.77404213 -0.29522645 -0.19519056 149 150 145 0.028723469 0.99939692 0.019514712 0
-0.76526362 -0.29551038 -0.19480211 164 165 160 0.052700214 0.99800199 0.034851383 0
-0.75498676 -0.29592445 -0.19422629 137 136 133 0.02892301 0.99946171 -0.015487329 0
-0.74456125 -0.29602879 -0.19465776 121 120 116 -0.0065889959 0.99997544 -0.0023912243 0
-0.73429412 -0.29594287 -0.19528504 152 151 146 0.026040103 0.99965304 0.0039720023 0
-0.72614479 -0.29614627 -0.19473371 146 145 140 0.0034114791 0.99981809 -0.018766936 0
-0.71465945 -0.29646891 -0.19427124 177 175 170 0.040517498 0.99916112 -0.0059463517 0
-0.70550257 -0.29669246 -0.1937027 131 130 126 0.030785659 0.99943709 0.013329919 0
-0.69479483 -0.29700726 -0.1946837 159 158 154 0.017850973 0.9996224 -0.02089214 0
-0.68551826 -0.29704425 -0.1934948 159 159 153 -0.0054954593 0.9998824 -0.014318003 0
-0.67639065 -0.29697895 -0.19481772 148 148 144 -0.0093721543 0.99993956 -0.0057459837 0
-0.66562134 -0.29699925 -0.19473279 154 153 149 -0.0020756526 0.99997097 0.0073315981 0
-0.65600759 -0.2971864 -0.19483115 145 145 140 0.027846377 0.99959946 0.0050339405 0
-0.64476353 -0.29749775 -0.19534191 164 162 155 0.033546198 0.999304 0.016319294 0
-0.63559234 -0.29765105 -0.19453201 175 173 166 -0.017201368 0.99939752 0.030143682 0
-0.62523723 -0.29791757 -0.19486921 170 169 163 0.051493321 0.99861497 -0.010796083 0
-0.61381125 -0.29832381 -0.1953965 175 173 166 0.028130665 0.99954885 0.010515747 0
-0.60552996 -0.29855043 -0.19538218 156 153 146 0.035837926 0.99915898 0.019926712 0
-0.59508139 -0.29891461 -0.19501577 203 198 190 0.02876652 0.99933606 0.022360723 0
-0.58499491 -0.29916552 -0.1946988 209 204 195 0.019605296 0.99922222 0.034215517 0
-0.57386315 -0.29923502 -0.19530252 156 157 154 0.015085166 0.99978226 0.014417337 0
-0.56387538 -0.29945239 -0.19415995 148 148 142 0.0040076841 0.99969566 0.024343077 0
-0.5548231 -0.29963386 -0.19550239 128 128 121 0.0091783302 0.99982923 0.016034102 0
-0.54649389 -0.29979506 -0.19496615 142 141 136 0.030936943 0.99943483 0.013151651 0
-0.53958589 -0.29995966 -0.19835597 203 200 193 0.078397177 0.99082863 -0.11005688 0
-0.32292116 -0.29879534 -0.19487764 172 169 160 -0.22383393 0.97223151 0.068294115 0
-0.31511888 -0.29842845 -0.19494313 166 163 154 0.011390542 0.99409658 0.10789932 0
-0.30540302 -0.29875576 -0.19475168 180 177 170 0.094384141 0.98984832 0.10626337 0
-0.29548457 -0.29916024 -0.19598706 145 145 138 0.063402385 0.98560393 0.15673245 0
-0.28598538 -0.29972827 -0.19738968 135 134 128 0.082013629 0.99445796 0.06578169 0
-0.99021912 -0.2824541 -0.19399069 214 215 211 0.86430764 0.28369081 0.41532141 0
-0.9869383 -0.28412184 -0.1952557 195 197 195 0.30141157 0.95334637 0.016783092 0
-0.97484094 -0.28540757 -0.19450502 165 172 172 0.04426026 0.99895293 0.011575805 0
-0.96579653 -0.28559342 -0.19511253 160 166 165 -0.0074300566 0.99914974 0.040553417 0
-0.95491487 -0.28568858 -0.19459076 206 207 203 -0.016462781 0.99978632 -0.012499509 0
-0.94413453 -0.28582743 -0.19603758 182 182 179 0.054248143 0.99849737 0.0077563231 0
-0.93508422 -0.2858569 -0.19547093 165 165 160 0.0157589 0.99980664 -0.011763537 0
-0.92470276 -0.28637153 -0.19586332 155 158 156 0.0071918825 0.99843448 0.055468734 0
-0.91517097 -0.28665572 -0.19451192 163 166 167 0.027524222 0.99948388 0.016563572 0
-0.90492684 -0.28662232 -0.19461168 196 200 199 0.0008377526 0.99993056 -0.011755937 0
-0.89546269 -0.28693888 -0.19431439 184 186 185 0.022168381 0.99940139 -0.026557438 0
-0.88498586 -0.28735989 -0.19492972 126 127 127 0.05650859 0.99818677 -0.020735847 0
-0.87588125 -0.287783 -0.19613077 170 171 168 0.039265975 0.99918056 0.009826079 0
-0.86458689 -0.28851345 -0.19412081 177 179 174 0.09183865 0.99573702 -0.0085715232 0
-0.85520983 -0.28934655 -0.19475639 176 179 176 0.097495593 0.99522215 0.0052366885 0
-0.84982497 -0.2898584 -0.19266964 167 172 169 0.15134813 0.987472 -0.044642065 0
-0.99105471 -0.27821669 -0.19621123 193 193 191 0.72350991 0.68307865 -0.099684723 0
-0.03139713 -0.34182993 -0.18708861 162 162 158 0.72755653 0.32850498 -0.60228395 0
-0.026023364 -0.34293491 -0.18444978 44 46 41 0.28377807 0.60769117 -0.74174219 0
-0.17232986 -0.33087781 -0.18071409 130 122 106 0.029394887 0.81114429 0.58410686 0
-0.1683096 -0.3306995 -0.18006094 113 105 86 -0.34753683 0.69758922 0.62656802 0
-0.014097472 -0.33662 -0.18603289 57 58 55 0.01081733 -0.54075873 0.8411082 0
-0.0039761215 -0.33407664 -0.18467379 73 73 72 0.022740297 -0.83615226 0.54802585 0
0.0057507213 -0.33359692 -0.18567435 103 104 103 -0.3223846 -0.65819693 0.68032718 0
0.011432566 -0.33387417 -0.18371774 145 147 144 -0.19119856 -0.66480714 0.72213203 0
0.025445497 -0.33544812 -0.18609115 160 158 153 -0.57893062 -0.43689367 0.68844992 0
0.032931659 -0.33719996 -0.18197949 154 153 148 -0.70252764 0.2897068 0.65001911 0
-0.1932817 -0.32227257 -0.18178433 55 53 48 0.40594634 0.66398126 0.62796217 0
-0.18479022 -0.32496479 -0.1842376 110 105 95 0.37507254 0.67973828 0.63029873 0
-0.17585005 -0.32707709 -0.18568447 118 111 95 0.22119673 0.80130219 0.55586594 0
-0.16449368 -0.32832855 -0.18524738 139 129 111 -0.015870482 0.96607083 0.25778916 0
-0.15537207 -0.32757261 -0.18471584 142 127 106 -0.16046658 0.97615772 0.14617294 0
-0.14525098 -0.32608274 -0.18548168 136 118 96 -0.025530614 0.98895049 0.14603144 0
-0.13482568 -0.32602367 -0.18511251 152 129 104 -0.098939903 0.96559787 0.24048235 0
-0.12486016 -0.32584357 -0.18469429 125 107 89 0.088373594 0.9426831 0.32177433 0
-0.11448826 -0.32460299 -0.18507753 67 60 54 -0.3072398 0.87705815 0.36928684 0
-0.10724075 -0.32197168 -0.1830398 52 51 44 -0.49754423 0.68724298 0.52928901 0
-0.21115053 -0.31050485 -0.18062183 76 76 78 0.3147054 0.91174757 0.263964 0
-0.20436506 -0.31256345 -0.1831907 94 95 92 0.36451098 0.69362372 0.62130332 0
-0.19552195 -0.31571108 -0.18613873 70 70 67 0.4586046 0.66374362 0.59086907 0
-0.18801698 -0.31789398 -0.18899655 137 137 133 0.39377749 0.452784 0.7999537 0
-0.11008117 -0.31921586 -0.18790409 4 3 0 -0.68824238 0.68825263 -0.22941414 0
-0.10391302 -0.31807461 -0.18667626 44 42 36 -0.29576233 0.85770959 0.420546 0
-0.094853118 -0.31443325 -0.18470661 6 5 5 -0.49532655 0.72193426 0.48317963 0
-0.087378301 -0.31081396 -0.18367349 15 16 15 -0.41885123 0.84763265 0.32570305 0
0.60732818 -0.31021056 -0.18953839 152 154 151 0.139524 0.97431797 -0.17674169 0
0.61676645 -0.31034392 -0.18751991 135 136 132 0.063925654 0.98773128 -0.1424799 0
0.62507296 -0.31050307 -0.18552928 165 167 163 0.047861002 0.986889 -0.15414032 0
0.63552433 -0.31089038 -0.18371208 174 176 173 0.11032318 0.98862958 -0.10217862 0
0.64592463 -0.31117976 -0.18457617 161 163 160 0.0031854077 0.99822116 -0.059534691 0
0.65485626 -0.31133631 -0.18614176 183 184 181 -0.029459679 0.99910861 -0.030233987 0
0.66556007 -0.31123945 -0.18531021 182 182 177 0.0051444927 0.99979144 -0.01976376 0
0.67498159 -0.31132564 -0.18473189 218 218 214 0.0038569011 0.99989009 -0.014314286 0
0.68566519 -0.31140935 -0.18585992 164 164 161 0.028716274 0.99854815 -0.045573484 0
0.69530195 -0.31176335 -0.18536429 140 142 139 0.047352429 0.99782896 -0.04577142 0
0.70542181 -0.31203702 -0.18565352 170 171 169 0.023152027 0.99972403 -0.0039748703 0
0.71571296 -0.31204605 -0.18573816 161 165 164 -0.031296242 0.99937797 0.016250826 0
0.72554666 -0.3119643 -0.18476127 150 156 155 0.0018935616 0.99982065 -0.018839793 0
0.73505205 -0.3120068 -0.18510717 144 149 147 -0.0079947272 0.99993175 0.0085141929 0
0.74420953 -0.31203648 -0.18480112 160 164 163 0.018317854 0.99965322 0.018914789 0
0.75475121 -0.31199846 -0.18573684 145 147 146 -0.020310234 0.9996081 0.019268986 0
0.76498783 -0.31194863 -0.18525667 153 154 153 0.0034862929 0.99844164 -0.055696823 0
0.77569896 -0.31193143 -0.18405761 174 176 175 0.0065053115 0.99980718 -0.018533409 0
0.7852453 -0.3121897 -0.18503635 151 154 152 0.010050911 0.99983066 -0.015415711 0
0.79450059 -0.31216729 -0.18504365 149 153 152 -0.022143917 0.99973768 0.0058481647 0
0.80377948 -0.31209961 -0.18585694 176 176 174 0.0044313967 0.99798006 0.063373484 0
0.81472689 -0.31208003 -0.18477435 186 186 185 0.023650134 0.99959874 0.015588036 0
0.82437003 -0.31216928 -0.18506104 156 160 160 -0.075899474 0.99711549 0.00033776421 0
0.83503902 -0.31238961 -0.18535046 138 143 143 0.032295108 0.98847771 0.14788106 0
0.84464842 -0.31206626 -0.18492724 181 185 184 -0.074073061 0.99716264 -0.0134087 0
0.85643685 -0.31102815 -0.18466268 194 196 194 -0.062295023 0.99624223 -0.060172804 0
0.8632344 -0.31056267 -0.18614179 157 158 158 -0.10005975 0.99206817 -0.076083489 0
-0.54557675 -0.30012831 -0.1847668 214 211 201 0.054306194 0.99840355 0.015534548 0
-0.53505248 -0.30032346 -0.1845821 176 175 169 0.020484339 0.99969572 0.013741401 0
-0.52431053 -0.30070457 -0.18529564 166 165 160 0.0070145233 0.99834776 0.057030406 0
-0.51456201 -0.30113325 -0.18365042 170 167 161 0.050446052 0.99760497 0.047323737 0
-0.50452244 -0.30136806 -0.18424085 151 148 142 0.015088722 0.99925685 0.035470925 0
-0.49477094 -0.30153278 -0.18558368 170 167 159 0.014123101 0.99979764 -0.014327932 0
-0.4855426 -0.30159408 -0.18392356 150 150 144 0.035888802 0.99912727 0.021368198 0
-0.47618353 -0.3018958 -0.18431227 190 190 185 0.018688047 0.99978244 0.0092645716 0
-0.46648785 -0.30207202 -0.18497366 172 168 160 0.00729489 0.99963367 0.026066296 0
-0.45484573 -0.30238721 -0.18566556 165 162 154 0.014319326 0.99969941 0.019902326 0
-0.44488174 -0.30249575 -0.18613806 175 174 166 0.0023384129 0.99999678 0.0009857798 0
-0.43468106 -0.30246016 -0.185802 214 211 203 0.0037586177 0.99990624 -0.013170301 0
-0.42520523 -0.30264929 -0.18495293 193 190 184 0.035561983 0.99935877 0.0041850554 0
-0.41563228 -0.30297065 -0.18523923 138 138 133 0.022932185 0.99950409 0.021580895 0
-0.4039346 -0.30338636 -0.18495482 157 156 151 0.071431167 0.99744344 0.0020439604 0
-0.39548895 -0.30387381 -0.18591785 155 154 149 0.04635841 0.99880004 -0.015792444 0
-0.3846207 -0.30431846 -0.18521522 175 174 169 0.030197641 0.99951112 0.0081027132 0
-0.37521666 -0.30435282 -0.18430836 153 151 144 -0.024484269 0.99963468 0.011443469 0
-0.36531159 -0.30434614 -0.18330464 199 194 185 0.050931368 0.9965716 0.065200411 0
-0.35654905 -0.30422866 -0.18543449 150 147 141 -0.098456949 0.99497998 0.017920773 0
-0.34472537 -0.30316061 -0.18492545 137 132 125 -0.085095502 0.99622291 0.017282112 0
-0.33498511 -0.30215922 -0.18471777 172 166 157 -0.081791729 0.99659407 -0.01050458 0
-0.32810554 -0.30124253 -0.18513146 153 148 140 -0.3486909 0.93487984 0.066439971 0
-0.30089366 -0.30001363 -0.18434663 124 121 112 0.12988497 0.99149728 0.0079452936 0
-0.29465577 -0.30068767 -0.18363257 119 117 110 0.094836771 0.98911059 0.11254408 0
-0.28501782 -0.30142888 -0.18471609 173 168 161 0.14269884 0.97900027 0.14558694 0
-0.27555943 -0.30245969 -0.18537727 163 161 154 0.11251358 0.97748911 0.17848155 0
-0.2651622 -0.30344555 -0.18564218 113 114 110 0.065281577 0.98397148 0.16594712 0
-0.25449184 -0.30440488 -0.18439481 100 101 97 0.063494317 0.98393637 0.16684633 0
-0.24463007 -0.30476105 -0.18467303 160 158 154 0.045184266 0.98961562 0.13645247 0
-0.23549913 -0.30526137 -0.18561706 118 114 108 0.076127768 0.98710847 0.14078848 0
-0.22434551 -0.30623588 -0.18439637 134 131 126 0.088813052 0.98154396 0.16936243 0
-0.21534905 -0.30727038 -0.18446314 120 120 115 0.21848008 0.9282257 0.30110395 0
-0.20651746 -0.30875131 -0.18764913 84 85 81 0.28348422 0.84767407 0.44842538 0
-0.090690158 -0.30988914 -0.18850854 41 43 40 -0.17974615 0.8987152 0.40000305 0
-0.084116936 -0.30832812 -0.18654084 75 77 73 -0.25916094 0.92354441 0.28266829 0
-0.074797258 -0.30718684 -0.1841608 90 91 88 -0.11626701 0.96823901 0.22134855 0
-0.065167159 -0.30565351 -0.18492228 101 101 98 -0.081235342 0.98225862 0.16902335 0
-0.055154298 -0.30503973 -0.18526049 142 141 136 -0.10084143 0.98657829 0.12843025 0
-0.045862019 -0.3045544 -0.18520872 80 81 78 -0.043324869 0.99123687 0.12478972 0
-0.034772474 -0.30417156 -0.18436523 54 56 56 0.001778462 0.99641007 0.084639788 0
-0.025885288 -0.30396849 -0.18437545 69 70 69 -0.027633114 0.99901634 0.034680739 0
-0.015995037 -0.30383766 -0.18442889 155 157 151 -0.017295063 0.99885082 0.044698175 0
-0.0047380058 -0.30392659 -0.18553287 154 155 150 0.0034982325 0.99928659 -0.037603285 0
0.004075726 -0.30402935 -0.18379727 131 128 124 0.017910983 0.99967629 0.018068297 0
0.015770858 -0.30417919 -0.18563913 109 106 101 0.028311867 0.99913657 -0.030407837 0
0.024872454 -0.30449125 -0.18572576 155 157 152 0.014253631 0.9998306 0.011639412 0
0.035738874 -0.30456197 -0.18496612 109 107 99 0.0073620146 0.99558389 0.093587719 0
0.044595126 -0.30479097 -0.18500456 145 145 140 -0.012578742 0.99985129 0.011795818 0
0.054999758 -0.30475339 -0.18581972 168 167 162 0.013038523 0.99923271 0.03693299 0
0.065422907 -0.30480248 -0.18648373 166 163 157 -0.014957983 0.99908292 0.040117588 0
0.074434526 -0.30489147 -0.18538386 172 169 162 0.011278593 0.99913806 0.039949395 0
0.083870724 -0.30481416 -0.1859632 192 189 181 -0.02829273 0.99711722 0.07040412 0
0.095241137 -0.30489394 -0.18483832 157 156 148 0.028508671 0.99954963 0.0093727792 0
0.1049668 -0.30498692 -0.18507795 164 161 154 -0.023414588 0.99924874 0.030883061 0
0.1159554 -0.30479199 -0.1854347 187 184 179 0.0040658456 0.9999786 0.0051187752 0
0.1254466 -0.3048729 -0.18469936 156 155 147 -0.025306916 0.99918777 0.031357259 0
0.1355108 -0.30505776 -0.18496521 150 149 143 0.037965357 0.99915469 0.015764639 0
0.14526181 -0.30518091 -0.18507911 169 167 157 0.0088822879 0.9996385 0.025376698 0
0.15491632 -0.3053112 -0.18492365 201 199 189 0.013204999 0.99923998 0.036675591 0
0.16499949 -0.30534539 -0.18525319 161 162 154 -0.0012965011 0.99947667 0.032323804 0
0.17475702 -0.30547786 -0.18529932 186 184 178 -0.0017219388 0.99988824 0.014853064 0
0.18454225 -0.30560717 -0.18542615 168 168 161 0.017426684 0.99958873 0.02277383 0
0.19449578 -0.30560508 -0.1856318 186 183 177 -0.0076693809 0.99996924 0.0016315692 0
0.20544341 -0.30579451 -0.18498299 166 164 157 0.015158312 0.99988478 -0.0007586974 0
0.2158421 -0.30603182 -0.18460177 208 205 199 0.024892358 0.99968243 0.0039375341 0
0.22667831 -0.30602372 -0.18542558 184 185 180 0.016363911 0.99982679 -0.0088690883 0
0.23614261 -0.30620819 -0.18490322 137 137 131 0.031905364 0.99903136 -0.030302061 0
0.24455962 -0.30635411 -0.18471393 197 196 190 0.023815129 0.99970841 -0.0039741239 0
0.2550005 -0.30655092 -0.18435813 140 138 131 0.016164398 0.99914294 -0.038107552 0
0.26454365 -0.30686322 -0.18400426 144 143 138 0.04005672 0.99910867 -0.013316258 0
0.27560106 -0.3070792 -0.18435718 199 197 190 0.050382927 0.99870759 0.006690077 0
0.28518516 -0.30741546 -0.18489185 181 179 173 0.051829919 0.9986074 0.0098460866 0
0.29463956 -0.3077172 -0.18574186 173 171 166 0.029599309 0.99954373 -0.0060155401 0
0.30530128 -0.30791804 -0.1842252 183 182 177 0.035354372 0.99913681 -0.021812677 0
0.31505415 -0.30824646 -0.18527292 193 194 189 0.026347615 0.99965286 3.9516297e-05 0
0.32489404 -0.30833295 -0.1842124 151 151 146 -0.011176218 0.99962473 0.025011726 0
0.33459678 -0.30849141 -0.18556289 172 171 166 0.0084075807 0.99977422 -0.019516744 0
0.34487113 -0.30844301 -0.18467778 160 159 154 -0.006657077 0.99993849 -0.0088642156 0
0.35495985 -0.30857828 -0.18605188 142 143 138 0.0062854709 0.99977928 -0.020046538 0
0.36685079 -0.30847657 -0.18375629 151 153 148 0.01523657 0.99979359 -0.013441895 0
0.37464681 -0.30862454 -0.18539588 163 165 160 -0.0037146499 0.99980062 -0.019619288 0
0.38575029 -0.3086926 -0.18543291 198 199 195 0.00087070093 0.99975395 -0.022165302 0
0.39616346 -0.30866829 -0.18541078 181 181 177 0.0098955287 0.99994665 0.0029563177 0
0.40583816 -0.30860212 -0.1849585 188 190 185 -0.00060916151 0.99990875 0.01350211 0
0.41550496 -0.30870286 -0.18436132 143 144 141 0.023533979 0.99970782 0.0055278717 0
0.42459801 -0.3089585 -0.1850214 190 192 189 0.0092012268 0.99995279 0.0031120735 0
0.43461397 -0.30898672 -0.18501711 180 181 178 -0.012112488 0.99909323 0.040817745 0
0.44499063 -0.30886608 -0.18559536 138 139 137 -0.0019580491 0.99922121 0.039409693 0
0.45526654 -0.30899048 -0.18476756 179 180 177 0.0072266473 0.99907446 0.042403009 0
0.46643448 -0.30893749 -0.18548301 167 168 162 -0.002264475 0.99959606 0.028330173 0
0.475052 -0.30901811 -0.18480515 148 148 144 0.017484782 0.99981791 0.0076413024 0
0.48483509 -0.30905142 -0.18448009 188 188 185 -0.01705016 0.99979359 -0.011053533 0
0.4949213 -0.30900249 -0.18507655 141 141 139 0.01953838 0.99980497 0.0028812601 0
0.50417262 -0.30913284 -0.18531586 145 145 142 0.051759321 0.99863356 -0.0072103385 0
0.51378709 -0.30926639 -0.18586813 181 181 177 -0.01382937 0.99940121 0.031716906 0
0.52287644 -0.30941024 -0.18524483 165 166 163 -0.0087436242 0.99969763 0.022983469 0
0.53496635 -0.30936715 -0.18399358 193 194 192 -0.019265575 0.99978554 0.0075996136 0
0.54437697 -0.30932486 -0.18410507 162 163 159 0.00023619525 0.99999815 -0.0018804604 0
0.55486816 -0.30927736 -0.18461962 191 192 187 -0.018382689 0.99973059 0.014174842 0
0.56404257 -0.30925754 -0.18505502 181 183 176 -0.0056304336 0.99973822 -0.022177469 0
0.57448351 -0.30932099 -0.18551812 181 182 177 -0.0094113443 0.99992269 -0.0081241112 0
0.58487743 -0.30932644 -0.18428016 157 157 154 0.0020273677 0.99996996 -0.0074820467 0
0.59437239 -0.30951568 -0.18499421 172 174 170 0.03107373 0.99926984 -0.022231301 0
0.60516393 -0.30982488 -0.18372622 198 201 198 0.0099693378 0.99837112 -0.056176003 0
0.61279488 -0.30971363 -0.18362662 163 164 159 0.050525814 0.99872243 0.00083032751 0
0.62450695 -0.30976743 -0.18031088 203 205 202 0.065589547 0.9923057 -0.1050119 0
0.86694747 -0.30988839 -0.18377773 172 175 174 -0.12998955 0.99081236 -0.037331305 0
0.87488896 -0.3095659 -0.18488403 123 125 124 0.0087243561 0.99995667 -0.0032458054 0
0.88587958 -0.30940819 -0.18463157 154 155 153 -0.027954623 0.99953496 -0.012180738 0
0.89461011 -0.30851483 -0.18555635 114 118 117 -0.089030392 0.98291349 0.1611042 0
0.90405506 -0.3074531 -0.18369623 170 175 175 -0.11428471 0.9854061 0.12614967 0
0.91341174 -0.307372 -0.18140388 146 146 146 0.25189623 0.95657468 -0.14667411 0
-0.84515339 -0.29065341 -0.18431395 163 168 165 0.15361027 0.98793626 0.01963863 0
-0.83450681 -0.29184517 -0.18503371 194 201 198 0.097720146 0.99519432 -0.0062575093 0
-0.82482803 -0.29236937 -0.18460202 175 177 172 0.054391041 0.998411 -0.01473583 0
-0.81518292 -0.29280078 -0.18593965 149 151 146 0.020246964 0.99972486 -0.01184393 0
-0.80457991 -0.2931371 -0.18413611 178 179 177 0.065443203 0.99773711 0.015422878 0
-0.7945767 -0.29388073 -0.18545751 176 177 174 0.077420525 0.99674952 0.022283634 0
-0.78428799 -0.29464012 -0.18572871 163 162 158 0.068271533 0.9975546 0.014963111 0
-0.77458137 -0.2952024 -0.18499926 164 165 160 0.018309541 0.99947244 -0.026824627 0
-0.76452345 -0.29552779 -0.18577707 162 163 159 0.037584201 0.99928987 -0.0026915451 0
-0.75542605 -0.29595211 -0.18591933 165 164 160 0.02771646 0.99954361 0.012010962 0
-0.74506104 -0.29602203 -0.18500218 167 167 163 -0.01286529 0.99988472 -0.0080583571 0
-0.73536593 -0.2958506 -0.18536939 129 131 129 -0.0089783221 0.99989629 -0.011257143 0
-0.72391301 -0.2959756 -0.18498254 198 196 190 0.03074112 0.99952573 -0.0018466914 0
-0.71404058 -0.29646865 -0.18582854 148 146 142 0.027742621 0.99953789 0.012420561 0
-0.70460725 -0.29683578 -0.18487215 142 145 145 0.048228011 0.99882734 -0.0042485241 0
-0.69480866 -0.29692405 -0.18510295 113 116 113 -0.015716167 0.99984801 0.0075563635 0
-0.68505436 -0.29688677 -0.18464835 153 150 144 -2.2848899e-05 0.99938661 -0.035021462 0
-0.6758557 -0.29684168 -0.18519643 142 141 135 0.0040266113 0.99997532 -0.0057594925 0
-0.66554731 -0.29700211 -0.18357037 168 166 163 0.019595994 0.9997592 -0.0098777162 0
-0.6552313 -0.29718652 -0.18545115 137 136 131 0.042913623 0.99895686 -0.015606718 0
-0.64513224 -0.29759085 -0.1848053 170 169 163 0.01412763 0.99987477 0.0071303356 0
-0.63487583 -0.29778063 -0.18483919 179 177 169 0.01958135 0.99963659 0.01852783 0
-0.62470156 -0.29794356 -0.18640485 182 180 172 0.023758162 0.99971294 -0.0030901195 0
-0.61384541 -0.29845527 -0.18370873 161 159 154 0.057352155 0.99585098 0.070651427 0
-0.60508007 -0.29875505 -0.18492799 183 181 173 0.043221332 0.99899113 0.012191598 0
-0.59418273 -0.29895648 -0.18507157 160 158 151 0.023502856 0.99966341 -0.010984405 0
-0.58412468 -0.29925239 -0.18541677 195 192 183 0.035475172 0.99912256 -0.022264015 0
-0.57560641 -0.29936337 -0.18509884 190 188 179 0.0069043553 0.99977976 0.019818751 0
-0.56533653 -0.2995109 -0.18461899 202 199 190 0.030568933 0.9994939 -0.008807159 0
-0.55419487 -0.29976985 -0.185017 194 193 185 0.016791884 0.9994542 0.028448865 0
-0.54674995 -0.29991663 -0.18561165 198 194 186 0.046824757 0.99645585 0.069879137 0
-0.32288587 -0.29862681 -0.18667847 182 177 169 -0.14727241 0.98616111 0.076138295 0
-0.31630453 -0.29900622 -0.18487003 149 141 133 0.090083376 0.99512464 0.040148158 0
-0.30507162 -0.29934245 -0.186768 175 175 169 0.070348926 0.99448675 0.077763774 0
-0.99090177 -0.28296927 -0.18331654 191 192 187 0.38126937 0.92430538 0.017124422 0
-0.9862833 -0.28450269 -0.18485153 181 181 178 0.10360398 0.99406511 -0.033179324 0
-0.97592634 -0.28527707 -0.1854831 159 162 161 0.04591158 0.99843174 -0.032033853 0
-0.96510214 -0.28543714 -0.18353733 190 192 189 0.00028686225 0.99999255 0.0038447108 0
-0.95420563 -0.28554693 -0.18501078 192 193 189 0.0010023458 0.99971592 -0.023814028 0
-0.94263387 -0.28584746 -0.18501969 194 194 191 0.036644902 0.99877131 -0.033362698 0
-0.93492776 -0.2858665 -0.18639562 130 131 126 0.03166214 0.99945736 0.0090780016 0
-0.92508191 -0.28634554 -0.18551232 184 183 180 0.050553471 0.99852103 -0.020000391 0
-0.91582823 -0.2865274 -0.18524249 155 155 154 0.038878035 0.99924356 -0.0008264159 0
-0.905083 -0.28671709 -0.18477599 183 183 182 0.027883258 0.99955064 0.011002994 0
-0.89373302 -0.28698549 -0.1853196 207 209 206 0.046342555 0.99891317 -0.0049927747 0
-0.88514787 -0.28731704 -0.18468623 186 188 185 0.059575092 0.99734527 -0.041871578 0
-0.87536901 -0.2878401 -0.18443871 189 190 188 0.050976433 0.9986999 4.3823267e-05 0
-0.865152 -0.28842688 -0.18456116 175 176 171 0.063327506 0.99762702 0.027018387 0
-0.85451901 -0.28929827 -0.18568797 170 174 170 0.087847769 0.99464196 -0.054498367 0
-0.84937084 -0.28975797 -0.18376221 150 154 151 0.37484306 0.92660964 -0.029786106 0
-0.020020876 -0.34595937 -0.17135325 89 91 88 0.029818686 -0.10596044 -0.99392319 0
-0.018902941 -0.34238458 -0.17565887 35 37 36 0.94955266 -0.31291601 0.02081562 0
-0.19437099 -0.33092842 -0.17259955 73 66 51 0.28272548 0.85940444 0.42601675 0
-0.18468958 -0.33200067 -0.17469455 135 125 107 0.146827 0.90119505 0.40778592 0
-0.17481123 -0.33287987 -0.17468296 99 90 75 0.087534182 0.94176543 0.32467794 0
-0.16528496 -0.33222574 -0.17517978 165 153 131 -0.22084337 0.89142507 0.39571398 0
-0.15580072 -0.3314696 -0.17284037 164 143 115 -0.064836286 0.90003687 0.4309639 0
-0.14759828 -0.33083591 -0.17171347 150 130 103 -0.38057947 0.86914659 0.31582189 0
-0.13234752 -0.33007482 -0.17125292 135 100 72 0.1931802 0.97378415 -0.12010811 0
-0.12665609 -0.33042872 -0.17205821 143 112 91 0.049979761 0.93629551 0.34763885 0
-0.017522387 -0.33889815 -0.17550001 0 0 0 0 0 1 0
0.0046075396 -0.33396754 -0.17448609 67 67 64 -0.22329892 -0.7117691 0.6659748 0
0.015315753 -0.3327769 -0.17479274 98 99 95 -0.6079697 -0.29126978 0.73860317 0
0.026683295 -0.3340624 -0.1707693 212 212 209 -0.24054633 -0.56376427 0.79013127 0
0.036556449 -0.33667061 -0.17618504 158 157 153 -0.64004284 0.49298048 0.58933467 0
0.043297 -0.33567923 -0.17227758 122 124 119 -0.54452008 0.23171295 0.80610603 0
-0.21218638 -0.32122219 -0.17117272 140 133 121 0.53731471 0.45398521 0.71076745 0
-0.20448758 -0.32452279 -0.17341784 180 169 153 0.42611861 0.53962195 0.72610682 0
-0.19602929 -0.32641268 -0.17699647 112 109 99 0.44296446 0.58910215 0.67582625 0
-0.18656223 -0.32924101 -0.17895238 123 116 100 0.16082622 0.7774933 0.60797942 0
-0.16162142 -0.3291772 -0.17979716 76 59 45 -0.20413567 0.9372195 0.28275111 0
-0.15366219 -0.32891792 -0.17670991 163 137 114 -0.17760111 0.94550365 0.27291143 0
-0.14499187 -0.32858345 -0.17547701 194 179 154 0.041889172 0.96140265 0.27193797 0
-0.13476184 -0.3286612 -0.17539911 199 179 154 -0.083596393 0.94728696 0.309288 0
-0.12375343 -0.3288202 -0.17481925 132 111 93 -0.052651346 0.97180516 0.22983183 0
-0.11463479 -0.32850987 -0.17551324 72 62 53 -0.071582332 0.9761734 0.20484491 0
-0.10529856 -0.32525927 -0.1751564 74 74 68 -0.38762763 0.87290573 0.29627734 0
-0.095228508 -0.32174155 -0.17339696 48 45 41 -0.44581673 0.74079114 0.50246978 0
-0.22210738 -0.31314072 -0.17111877 55 56 54 0.41622046 0.60502225 0.67875528 0
-0.21367955 -0.31453407 -0.17478581 64 62 59 0.47181866 0.54352498 0.69423902 0
-0.20554213 -0.31752706 -0.17763154 99 94 87 0.47763503 0.61945421 0.62300992 0
-0.19964853 -0.31961453 -0.17992029 168 164 155 0.46510178 0.46093386 0.75579119 0
-0.094373547 -0.31843421 -0.17738345 17 16 14 -0.4576472 0.72713661 0.51169455 0
-0.084899843 -0.31373063 -0.17480305 27 28 27 -0.36343825 0.81845915 0.44501385 0
-0.075868018 -0.311055 -0.17290537 77 78 76 -0.19940956 0.903099 0.3803263 0
-0.066486575 -0.31047294 -0.17009588 110 110 108 -0.31225002 0.80005372 0.51226366 0
0.63676631 -0.31027827 -0.17805479 95 97 94 0.089169659 0.9789108 -0.18379945 0
0.64515245 -0.31053218 -0.17558993 152 154 151 0.070925549 0.9881112 -0.13640307 0
0.65446293 -0.31071547 -0.1741641 157 158 155 0.026308056 0.99516088 -0.094671495 0
0.66417426 -0.31081173 -0.17489269 159 160 157 0.031374905 0.99788451 -0.056939647 0
0.67538172 -0.31102145 -0.17449833 194 194 192 0.028014941 0.99926287 -0.026248682 0
0.68446416 -0.31119835 -0.17518723 190 191 188 -0.02085278 0.99965334 -0.016071757 0
0.69488657 -0.31135377 -0.17548908 158 159 157 -0.023128573 0.99912339 -0.034895357 0
0.70520818 -0.3115539 -0.17505692 161 162 159 0.028191395 0.99893868 -0.036424752 0
0.71487516 -0.31176141 -0.17440444 164 166 164 0.048983451 0.99716717 -0.05708129 0
0.72463137 -0.31198776 -0.17403793 183 188 187 0.034973703 0.99926144 -0.015917819 0
0.73557186 -0.31200132 -0.17527343 145 150 148 -0.0066705006 0.99991918 0.010826 0
0.74573231 -0.31196615 -0.17394975 132 135 134 -0.0034836871 0.99999374 -0.00056663528 0
0.75534672 -0.31192237 -0.17425312 129 131 131 -0.002110196 0.99989402 -0.014403266 0
0.76452255 -0.31183308 -0.1754133 131 134 135 -0.023749143 0.9996565 0.011087054 0
0.77583295 -0.31179824 -0.17418288 153 155 153 -0.0095065469 0.99995059 0.0028971031 0
0.78561938 -0.31177452 -0.17367531 184 186 184 0.0057561169 0.99948549 -0.031554155 0
0.79571384 -0.31201872 -0.17500879 194 196 194 0.022238618 0.99889278 -0.041456934 0
0.80522645 -0.31218758 -0.17440039 191 193 191 0.0044655357 0.99954218 -0.029923061 0
0.81443357 -0.3121807 -0.17469643 145 147 146 0.021635801 0.99947721 -0.024022678 0
0.82512182 -0.31250975 -0.17583773 100 104 106 0.040202212 0.99917686 -0.005417564 0
0.83451456 -0.31310815 -0.17630835 116 121 123 -0.04875854 0.99797314 0.040893916 0
0.84583187 -0.3109372 -0.17417496 145 146 145 -0.11651664 0.9909308 -0.066932827 0
0.85446829 -0.31046727 -0.17544745 186 186 184 -0.044087473 0.99879402 -0.021605451 0
0.86522031 -0.31036192 -0.17523196 187 188 186 -0.041135728 0.99759889 0.055718105 0
0.87244868 -0.3102006 -0.1721036 189 190 186 -0.117918 0.985313 0.12350549 0
-0.55086452 -0.30016962 -0.17806619 248 242 230 0.083339639 0.99487591 -0.057240799 0
-0.54559129 -0.30032092 -0.17567408 211 204 195 0.035098914 0.99937761 0.0035216329 0
-0.53442669 -0.30064705 -0.17490798 189 187 180 0.033603922 0.99907702 0.026756084 0
-0.52492893 -0.30095306 -0.1756614 160 158 152 0.027498789 0.99952906 0.01361256 0
-0.51540434 -0.3012929 -0.17461587 134 130 123 0.097322203 0.99448556 0.039074767 0
-0.5053308 -0.30149114 -0.17456809 158 154 146 0.050534181 0.99863034 -0.013551086 0
-0.49422851 -0.30168226 -0.17558523 186 185 177 -0.0053655915 0.99963886 0.026333749 0
-0.48584238 -0.30174866 -0.17477742 122 124 120 0.022761485 0.99941528 0.025513757 0
-0.47468415 -0.30202988 -0.17523545 156 152 144 0.020968204 0.9995805 0.019979153 0
-0.46314502 -0.30222169 -0.17534629 148 143 134 0.02870813 0.99953902 0.0098792193 0
-0.45506403 -0.30243781 -0.17656332 161 160 154 0.022337751 0.99939913 0.026504405 0
-0.44492808 -0.30260891 -0.17536399 142 141 135 -0.0061300942 0.99985272 0.016030515 0
-0.43619019 -0.30254316 -0.17500728 162 159 153 0.014327028 0.99962062 0.023525482 0
-0.4262135 -0.30266893 -0.17548043 156 153 146 0.019282106 0.99926019 0.033276338 0
-0.41581145 -0.30297062 -0.17464812 152 148 142 0.015108206 0.99986458 0.0065317932 0
-0.4051398 -0.30328673 -0.17553884 165 162 156 0.059794795 0.99816877 0.0091475183 0
-0.39474437 -0.30382177 -0.17479943 141 140 135 0.031673308 0.99940568 0.013605254 0
-0.38427922 -0.30443862 -0.17560573 110 112 108 0.057209671 0.99834418 -0.0059864344 0
-0.37574828 -0.30438706 -0.17468375 160 156 148 -0.019446183 0.99981093 -0.00014858544 0
-0.36599612 -0.30444631 -0.17495319 163 158 148 0.030152123 0.99943936 0.014554317 0
-0.35656169 -0.30415922 -0.17461534 158 155 148 -0.087768175 0.99527931 -0.041422568 0
-0.34596083 -0.30302125 -0.17477868 159 154 145 -0.021018922 0.99835914 -0.053265482 0
-0.33495978 -0.3023167 -0.17560507 176 169 159 -0.094724409 0.99550289 0.0011359386 0
-0.32611147 -0.30107376 -0.17597534 146 140 132 -0.26666492 0.95786172 0.10672789 0
-0.31494176 -0.30042848 -0.173695 153 148 139 0.072274521 0.99058479 0.11626805 0
-0.30439401 -0.30085728 -0.17435838 154 150 144 0.078434043 0.99517256 0.058989048 0
-0.29521477 -0.30173874 -0.17467983 137 131 123 0.085145205 0.98410171 0.15586556 0
-0.28477144 -0.30281866 -0.17499323 154 146 138 0.065576315 0.9853996 0.15712178 0
-0.27497202 -0.3037501 -0.1746437 149 144 135 0.12030862 0.98590404 0.11627156 0
-0.2652618 -0.30464208 -0.17596467 131 128 123 0.10276861 0.98589092 0.13212743 0
-0.25493482 -0.30584088 -0.17447257 126 124 120 0.066318817 0.98014921 0.18684056 0
-0.2447769 -0.30643997 -0.17459875 112 111 106 0.033490449 0.98619127 0.16218905 0
-0.23487127 -0.30710691 -0.17473154 89 87 83 0.11704575 0.96561629 0.23213263 0
-0.2257354 -0.30795017 -0.17615278 69 67 64 0.23096332 0.91621202 0.32743168 0
-0.21707034 -0.30940118 -0.17710023 56 57 56 0.20741796 0.85026652 0.48376089 0
-0.073008917 -0.30941066 -0.17680925 114 114 112 -0.14399847 0.94030613 0.30836478 0
-0.065422505 -0.3081578 -0.17503875 107 108 105 -0.204423 0.93091553 0.30266717 0
-0.054678489 -0.30718577 -0.17491174 160 160 154 -0.047905296 0.97685474 0.20847033 0
-0.044615608 -0.30622992 -0.1746465 103 105 101 -0.12397928 0.95902073 0.25477135 0
-0.034336317 -0.30494317 -0.17553172 90 91 90 -0.052483607 0.99489206 0.086228222 0
-0.025143309 -0.30439454 -0.1744782 76 76 74 -0.064467661 0.99272943 0.10164775 0
-0.014099258 -0.30412537 -0.1747839 94 94 91 -0.022648742 0.99897683 0.039144721 0
-0.0044249622 -0.30413637 -0.17504643 122 122 119 0.018921424 0.99975961 0.011076608 0
0.0033118839 -0.30427194 -0.17539383 144 143 138 -0.0074880207 0.99996394 0.0040109595 0
0.015402445 -0.30414909 -0.17589311 159 158 151 0.060869705 0.99808681 0.01084117 0
0.024575423 -0.3044737 -0.17379491 175 174 170 0.05581405 0.99842441 -0.0057926569 0
0.034467176 -0.30470043 -0.17507696 150 148 140 0.044723172 0.9989934 -0.0034747727 0
0.045725346 -0.30500424 -0.17444229 155 153 149 0.00024868242 0.99991459 0.013062037 0
0.054905109 -0.30518907 -0.17532638 171 170 163 0.042288143 0.99877995 0.025502041 0
0.065207653 -0.30510899 -0.1757381 160 157 150 0.014655633 0.99919409 0.03736927 0
0.074742869 -0.30522186 -0.17549987 177 175 167 -0.02517774 0.99926805 0.028801601 0
0.086668916 -0.30523789 -0.17531745 172 172 165 -0.0036764138 0.99896389 0.045360625 0
0.095457464 -0.30518985 -0.17460145 177 178 171 0.017368924 0.99945539 0.028056452 0
0.10526334 -0.30522701 -0.17543194 187 187 181 0.00603595 0.99969614 0.023900444 0
0.11501046 -0.3049899 -0.17442487 186 185 180 -0.029423933 0.99943948 0.0159647 0
0.12475403 -0.30503887 -0.17521615 182 181 176 0.016555933 0.9998107 -0.010223422 0
0.13490382 -0.30505377 -0.17446434 174 173 166 0.014179053 0.99989808 -0.0016987351 0
0.1450306 -0.30513427 -0.17476085 187 185 176 0.029822405 0.9995355 0.0062730974 0
0.15463942 -0.30537355 -0.17470147 218 217 209 0.0027319624 0.99999553 0.0012075437 0
0.16510244 -0.3055408 -0.17514218 163 162 154 0.013994767 0.9998979 0.0028888483 0
0.17474155 -0.30554432 -0.17529519 168 167 160 -0.0061233961 0.99995112 0.0077582272 0
0.18493892 -0.30567166 -0.17520241 194 193 188 0.016952047 0.99985141 0.003121702 0
0.19365655 -0.30564708 -0.17612013 171 167 162 -0.004408984 0.99976951 0.021012241 0
0.2043401 -0.30586255 -0.17460264 203 200 192 0.037422586 0.99920237 0.013932216 0
0.21505094 -0.30603063 -0.17583831 203 203 197 -0.0041490793 0.999973 0.0060651624 0
0.22419269 -0.30603641 -0.17541009 158 158 153 -0.0062813722 0.99997991 -0.00083655381 0
0.23523913 -0.30613464 -0.17514457 162 161 155 0.0050790524 0.9998703 -0.015287771 0
0.24661919 -0.30639076 -0.17603078 137 136 132 0.033500805 0.99901241 -0.029188359 0
0.2543461 -0.3065545 -0.17423937 182 181 174 0.012351535 0.99992377 9.3148054e-05 0
0.26562959 -0.30680156 -0.17508417 164 164 158 0.04171158 0.99871361 -0.028832052 0
0.27498233 -0.3071512 -0.17343833 175 172 167 0.048256248 0.99879527 0.0089077847 0
0.28423351 -0.30750459 -0.17584325 191 186 177 0.02789887 0.99906319 0.033082906 0
0.29565111 -0.30771875 -0.17518771 162 160 153 0.0055879406 0.999852 -0.016276687 0
0.30567366 -0.30793938 -0.1753834 125 125 120 0.012925675 0.99989247 0.0069130664 0
0.31444192 -0.30807891 -0.17553127 154 155 150 0.075532988 0.99668264 -0.030305751 0
0.32507995 -0.30831304 -0.17514895 191 192 187 -0.0098301508 0.99995053 -0.0015302489 0
